   4.1285436e+00   3.5378019e+00   9.0235070e+00
   1.0308801e+01   8.1059338e+00   8.1660946e+00
   4.3220696e+00   1.0403223e+01   1.1331418e+01
   4.8906559e+00   1.1620705e+01   9.4746499e+00
   3.6436503e+00   1.0481532e+01   6.1776736e-01
   1.0162434e+00   4.0662855e-01   5.4729382e+00
   1.9238939e+01   7.0211352e+00   1.3875120e+01
   9.3783283e+00   1.1248550e+01   1.4363845e+01
   1.0628872e+01   7.8486477e+00   4.8522539e+00
   1.3262164e+01   4.6673061e+00   4.8280364e+00
   3.1034459e+00   1.0100745e+01   1.1759495e+01
   9.8662016e+00   1.2915279e+01   1.4710085e+01
   1.8255430e+01   6.2069191e+00   1.0732815e+01
   4.7144522e+00   1.1635389e+01   9.5646240e+00
   3.6011070e+00   4.4326482e+00   1.0006178e+01
   4.0462747e+00   1.0458080e+01   9.9596551e+00
   1.7251227e+00   9.9595321e+00   1.0637554e+01
   7.0889041e+00   8.8211196e+00   1.3161823e+01
   2.1470974e+00   3.0389740e+00   8.9228063e+00
   2.8853553e+00   1.2936119e+00   6.6047073e+00
   8.7127307e-01   3.0078025e+00   8.0587299e+00
   2.4306572e+00   2.8775872e+00   7.8044667e+00
   3.3867591e+00   4.0377281e+00   9.6742419e+00
   6.4739783e+00   1.2028971e+01   2.9112334e+00
   4.3611661e+00   9.6602879e+00   8.8367024e+00
   4.1553352e+00   8.5909858e+00   9.2943099e+00
   3.7711892e+00   9.0371799e+00   9.6597202e+00
   5.3639532e+00   8.7032002e+00   1.0849735e+01
   2.2030410e+00   5.8233337e-01   6.5916314e+00
   4.2033921e+00   9.0130369e+00   5.0784705e+00
  -7.0803051e+00   8.2509939e+00   9.6084015e+00
   1.4937006e+01   9.1000308e+00   7.7435404e+00
   1.5517202e+00   1.2102724e+01   6.9755837e+00
   1.6643295e+00   2.0564903e+00   7.2392196e+00
   1.6241821e+01   8.2180796e+00   1.0189917e+01
   4.7265538e+00   1.1881768e+01   9.6134859e+00
   1.1666039e+01   1.2638549e+01   1.0285937e+01
   1.1534648e+01   1.6816125e+00   3.4071740e+00
   1.9974886e+01   8.6628595e+00   1.6320086e+01
   3.4532988e+00   1.1541434e+01   8.5155883e+00
   6.8868802e+00   1.2858354e+01   1.1120871e+01
   1.7848143e+01   8.4940989e+00   1.3301859e+01
   1.0911383e+01   1.4004162e+01   4.1442081e-01
   6.2626527e+00   7.1656756e+00   1.1945079e+01
   1.2575293e+01   4.4743622e+00   1.0912162e+01
   1.6680731e+00   1.1428581e+01  -6.8793715e+00
   1.1366021e+00  -2.9984622e-01   8.3100297e+00
   9.1628449e+00   1.1064297e+01   2.0380765e+00
   5.7626059e+00   9.7014979e+00  -6.5268678e+00
   1.0265718e+01   1.0456925e+01   1.5969029e+01
   1.2479672e+01   1.6334207e+00   5.5836128e+00
   9.9562786e+00   2.9812660e+00   2.4885183e+00
   1.1434397e+01   6.4569723e+00   6.3538449e+00
   1.5719005e+01   5.3312363e+00   8.1267560e+00
   3.5982922e+00   1.1026490e+01   1.0427631e+01
   3.6035294e+00   2.3215293e+00   8.8197549e+00
   7.2173441e+00  -1.2699091e+00   6.8748836e+00
   1.2503125e+01   4.7250689e+00   9.1131072e+00
   2.8119610e+00   5.5880533e-01   6.3430781e+00
   2.6689205e+00   4.1124481e+00   9.2159756e+00
   1.8314776e+00   8.0016706e+00   1.0668180e+01
  -3.0311419e+00   1.6436670e+01  -1.9954555e+00
   1.2224616e+01   3.9045356e+00   5.7930889e+00
   1.5345032e+00   3.5702986e+00   6.0224005e+00
   6.9756776e+00   1.0830033e+01   1.4346238e+01
   5.1590887e+00   1.0553462e+01   8.8858284e+00
   1.4111306e+01   5.6756008e+00   9.7907441e+00
   3.3509265e+00   2.6806149e+00   9.4401296e+00
   6.9395173e+00   9.9015589e+00   1.4026939e+01
   9.3080190e+00   1.1224431e+01   1.4665351e+01
   6.1023132e+00   9.5752391e+00   1.1465840e+01
   5.9329429e+00   9.1987991e+00   1.2188417e+01
   1.0249639e+00   5.8333568e+00  -1.6191655e+00
   9.9531334e-01  -6.0576893e-01   6.1286662e+00
   6.4928129e+00   1.1919079e+01   1.7995213e+00
   2.7521028e+00   8.7240262e+00   8.9391037e+00
   1.5079187e+01   7.3966322e+00   1.0717425e+01
   5.2089363e+00   9.7412509e+00   9.3173187e+00
   3.1921837e+00   2.0108366e-01   7.5491675e+00
   1.3555754e+00  -4.2432582e-01   5.2539427e+00
   1.2832955e+00   2.3888244e+00   7.1631374e+00
   5.7021830e+00   1.1710738e+01   1.0791453e+01
   3.2023855e+00   1.4482993e+00   6.7264735e+00
   1.8299074e+00   1.9729983e+00   8.2315526e+00
   3.4480403e+00   8.2668752e+00   1.0582934e+01
  -6.9187733e-01   1.4479270e+01   6.4488979e+00
   1.7147211e+01   8.2809886e+00   1.1658035e+01
   6.1878683e+00   1.0393587e+01   1.0038846e+01
   3.6454446e+00   3.8510318e+00   1.0085210e+01
   5.7046430e+00   1.0073048e+01   1.2347585e+01
   2.6608304e+00   1.5564235e+00   6.2028639e+00
   1.2615840e+00   5.3220121e-02   6.1782850e+00
   1.1350765e+01  -1.8647966e-01   3.0282495e+00
   8.4185222e+00   5.3737532e+00   5.7163174e+00
   2.8529472e+00   9.7001903e+00   7.9458943e+00
   3.6081710e+00   7.5115481e+00   8.1750291e+00
   1.6782307e+00   7.7977420e+00   8.9410179e+00
   5.1078666e+00   3.1714809e+00   8.0455274e+00
   6.9456949e+00   7.3743122e+00   3.0490084e+00
   1.9751294e+00   1.1308241e+00   9.1186699e+00
  -3.6341260e+00   2.7365996e+00  -7.4965707e+00
   2.0169652e+01   6.7578559e+00   1.1547897e+01
   5.7923635e+00   1.1790284e+01   1.1435533e+01
   4.8194040e+00   1.0528232e+01   1.2018284e+01
   1.8740562e+00   2.6876906e+00   9.6118771e+00
   1.3985304e+01   1.0815521e+01  -6.2289962e-01
   1.1190802e+00  -2.7325409e-01   5.7387319e+00
   1.3314665e+00   9.9403829e-01   6.8769799e+00
   3.7705309e+00   9.9383265e+00   9.3022985e+00
  -1.9847033e+00   1.2367356e+01   1.0852479e+01
   2.7334181e-01   1.3065973e+01  -2.7297094e+00
  -6.4663052e+00   8.2415882e-01  -1.0839826e+01
   4.8284494e+00   1.0683848e+01   1.1161486e+01
   1.6408349e+01   3.8724811e+00   1.1204095e+01
   1.2360050e+01   6.6815029e+00   1.0171954e+01
   2.7761653e+00   1.5561729e+00   6.6298197e+00
   1.3556408e+01   3.7370543e+00   8.7265041e+00
   2.0407999e+00   3.4521650e+00   5.8589552e+00
   8.9192751e-01   3.1898620e+00   7.3914789e+00
   7.8258463e+00   1.0655957e+01   1.2237493e+01
   2.3528586e+00   1.0211929e+00   9.1560954e+00
   4.1342432e+00   3.2816745e+00   8.3503379e+00
   3.1116302e+00   8.8835729e+00   7.8337944e+00
   6.5104181e+00   8.6795644e+00   1.2216873e+01
   1.0115559e+01   1.6830493e+00   6.1584518e+00
   7.1243165e+00   1.1302933e+01   1.1664018e+01
   4.3769688e+00   7.8820377e+00   9.5532598e+00
   1.0848431e+00   2.3202574e+00   7.5982449e+00
   1.9905485e+00  -1.2994700e-01   5.4031176e+00
   1.0246409e+01   1.2466272e+01   1.4511656e+01
   1.2717113e+01   2.5446937e+00   9.3454950e+00
   7.9544481e+00   1.1727129e+01   1.3222177e+01
   2.0264052e+00   3.0546010e+00   7.4887004e+00
   1.6266399e+01   5.1042297e+00   7.4808073e+00
   1.2176099e+01   2.6317904e+00   8.8759854e+00
   1.6937374e+01   3.2764585e+00   9.0037348e+00
   4.1221917e+00   8.9918382e+00   9.8970234e+00
   8.4735955e-01   1.1551319e+01   7.9414671e+00
   3.6303123e+00   3.2582758e+00  -2.2319723e+00
   3.6244282e+00   1.0778894e+01   1.0433492e+01
   7.3338223e+00   1.1156500e+01   1.3611837e+01
   4.1833671e+00   9.6423875e+00   8.6523292e+00
   2.1948767e+00   4.6604973e+00   8.2015774e+00
   1.5575131e+00   1.2575098e+00   8.1033555e+00
  -5.5131363e-01  -9.6808873e-02   6.6763020e+00
   5.2006207e+00   1.2107877e+01   1.0635223e+01
   4.1679193e+00   1.0785461e+01   1.0917043e+01
   8.5607542e+00   1.2145212e+01   1.3103469e+01
   5.2618155e+00   9.5438494e+00   1.2298176e+01
  -2.3903803e+00   1.0962540e+01   9.0519614e+00
   7.7960493e+00   1.2035541e+01   2.6449663e+00
   8.3916317e+00   1.2031658e+01   1.3804258e+01
   1.7632360e+01   4.3492915e+00   1.1234721e+01
   1.2478439e+01   2.2751527e+01   2.0955488e+01
   4.4546492e-01  -9.3783005e-01   6.3245382e+00
   2.6658615e+00   9.1117896e+00   9.2402874e+00
   4.1747019e+00   9.1091298e+00   8.6201132e+00
   2.1278755e-01   7.2129027e+00   9.6266909e+00
   8.1654070e+00   1.1077899e+01   1.2847820e+01
   3.3958931e+00   2.4245126e+00   7.5269067e+00
   6.8083136e+00   9.4132676e+00   1.2061067e+01
   4.8600765e+00   1.1705303e+01   1.0901719e+01
   2.4289014e+00   1.0045305e+01   8.8276245e+00
   6.0869555e+00   1.0431781e+01   1.1584914e+01
   1.6137288e+00   2.7238403e+00   8.4523981e+00
   1.0921535e+01   8.1714206e+00  -4.3218250e+00
   3.7136274e+00   1.1674763e+01  -1.4034366e+00
   8.2501041e+00   9.3120034e+00   1.3188712e+01
   7.4667581e+00   1.2667569e+01   1.4189320e+01
   1.0430166e+01   3.0160506e+00   7.6074244e+00
   6.5158904e+00   9.7925380e+00   1.2696024e+01
   8.1591059e+00   1.2363456e+01   1.5102744e+01
   7.4461788e+00   1.1637302e+01   1.1117537e+01
   1.2522017e+01   8.2553986e+00   5.7540476e+00
   3.9486403e+00   9.9219982e+00   8.2896589e+00
   5.8258371e+00   1.0833113e+01   2.1033395e+00
  -2.6118150e-01  -1.1671078e+00   4.3709637e+00
   1.5086402e+01   4.4924621e+00   1.0197291e+01
   8.3724420e+00   1.2116831e+01   7.1020057e+00
   3.5371664e+00   1.6519254e+01   2.4493206e+00
   2.4756633e+00   1.3203551e+01  -7.7589048e-01
  -1.0784985e+01   4.9603541e+00   7.5188736e+00
   3.7623098e+00   6.4367909e+00  -1.5968905e+00
   4.9119616e+00   1.2333892e+01   1.0298476e+01
   8.6032025e+00   1.0863877e+01   1.3797215e+01
   7.2189714e+00   1.0674862e+01   1.2155352e+01
  -3.9550853e+00   1.1978418e+01  -4.9167368e+00
   7.9200695e+00   9.7330057e+00   1.3018371e+01
   7.6101456e+00   8.7724212e+00   1.3629785e+01
   1.1483057e+01   6.8311321e+00   8.5782252e+00
   6.4140912e+00   1.2700148e+01   9.2586627e+00
   7.9458377e+00   8.5211014e+00   7.2157522e+00
   1.3736276e+01   2.3141501e+00   1.0533193e+01
   7.5357299e+00   1.0684046e+01   1.4977655e+01
   1.2260106e+01   4.8995137e+00   9.8302611e+00
   2.3747680e+00   7.3856125e+00   7.6153210e+00
   8.9004549e+00   9.7592552e+00   1.3495807e+01
  -5.2876779e-01   1.2072346e+01  -1.9521770e+00
   2.8198083e+00   1.0017926e+01   9.1097489e+00
   2.3938696e+00   6.4281682e-01   6.3968272e+00
   9.1943129e+00   1.2332824e+01   8.3939093e+00
   1.8529796e+00   9.7075312e-01   7.4403032e+00
   3.8348916e+00   1.4499743e+00   8.0525065e+00
   2.4713670e+00   1.9424092e+00   5.4199091e+00
   1.2251630e+01   8.5717765e+00   1.1517607e+01
   3.8339772e+00   9.4210283e+00   9.3497016e+00
   1.7556188e+01   6.5977142e+00   1.2665457e+01
   1.7970209e+01   5.9870646e+00   8.1514123e+00
   8.8388303e+00   9.8698463e+00   2.2231445e+00
   7.1862119e+00   1.0528268e+01   1.4469859e+01
   1.1440541e+01   2.8705813e+00   9.2881275e+00
   3.8294560e+00   2.4335928e+00   7.2390419e+00
   5.3914071e+00   1.1290481e+01   1.0573078e+01
   5.7833650e+00   1.1056902e+01   1.0735793e+01
   6.0476150e+00   1.0295612e+01   1.1113193e+01
   5.9148993e+00   1.1347547e+01   1.0841655e+01
   2.8704529e+00   1.1410695e+00   7.7931403e+00
   4.6560911e+00   1.3273283e+01   1.1588359e+01
   2.1527927e+00  -1.1983726e-01   6.6160489e+00
   9.1217893e+00   1.0444401e+01   1.4463707e+01
   1.4569710e+01   3.5422485e+00   6.6123994e+00
   1.3100435e+01   3.4022645e+00   8.7886635e+00
   7.5157415e+00   1.0797024e+01   1.4820078e+01
   4.6501989e+00   1.1012943e+01   9.8182309e+00
   1.4335523e+01   3.2983583e+00   1.1457085e+01
   1.2030847e+01   3.0720151e+00   1.0313950e+01
   4.8580492e+00   1.1495016e+01   1.1086805e+01
   6.6054335e+00   1.1378008e+01   1.0784845e+01
   4.0734382e+00   8.7614950e+00   9.0551165e+00
   3.7644287e+00   1.0313446e+01   9.8709167e+00
   3.9877601e+00  -1.8863113e+00  -4.5658455e+00
   8.9799411e+00   1.3272918e+01   1.4216348e+01
   7.8153225e+00   1.1363062e+01   1.4140398e+01
   4.6901735e+00   9.4023622e+00  -1.0679215e+01
   2.0138028e+00   8.4216531e+00   6.3056106e+00
   6.6440469e+00   1.1150757e+01   1.1525820e+01
   1.8179936e+00   8.7218094e-01   7.6601340e+00
   1.2624427e+01   1.5638124e+00   6.9121303e+00
   3.9816318e+00   1.3119513e+01   9.3312173e+00
  -1.0473207e-01   1.0978554e+01   4.8370747e+00
   1.5457833e+01   3.2763521e+00   1.0001287e+01
   3.8936107e+00   1.2025237e+01   1.0142384e+01
  -1.1173142e+01   1.2578476e+01   7.2789581e+00
   2.1668150e+00   7.7446098e-01   4.9253556e+00
   2.3854693e+00   1.7769741e+00   8.1438190e+00
   1.3365364e+01   8.2018072e+00   7.8008823e+00
   4.8359071e+00   1.1184211e+01   1.0124571e+01
   1.2287648e+01   6.8444492e+00   8.9655823e+00
   9.9467599e+00   1.6095520e+01  -3.4815104e+00
   6.8758555e+00   1.0287285e+01   1.3147408e+01
   6.2297386e+00   1.1774609e+01   1.1292957e+01
   1.6010923e+01   5.8983785e+00   9.1702514e+00
   7.5024724e+00   9.2433538e+00   1.3492068e+01
   1.6902361e+00   7.0906034e-01   7.8591429e+00
   1.0961198e+01   2.4891021e+00   7.6389910e+00
   1.2891401e+01  -7.3850430e-01   3.1896582e+00
   8.7993404e+00   9.6403536e-01   3.5689182e+00
   1.2921171e+00   2.0645118e+00   5.5641616e+00
   7.1952739e+00   1.0017201e+01   1.3703956e+01
   5.3102734e+00   1.1403336e+01   1.3824105e+01
   5.2252431e+00   1.1965033e+01   1.1182332e+01
   1.6324421e+01  -3.8886068e-01   9.4040587e+00
   8.8681944e+00   1.0786740e+01   6.5700752e+00
   9.8387061e+00   6.4640753e+00   2.5560692e+00
   1.2078438e+01   5.5969340e+00   8.1020649e+00
   6.0344422e+00   1.0576133e+01   8.5445751e+00
   3.1751605e+00   1.8207707e+00   4.9432476e+00
   7.1428359e+00   1.1387057e+01   1.4683704e+01
   3.9238444e+00   1.8350776e+01  -1.4690775e+00
   2.3707443e+00   8.6452898e+00   7.5199423e+00
   7.1439754e+00   1.0482917e+01   1.3747479e+01
   1.3260876e+01   1.0115826e+01  -4.2022740e-01
   4.8955635e+00   1.0828373e+01   1.0402174e+01
   1.3474836e+01   5.6771967e-01   7.1343140e+00
   6.0201832e+00   1.0925873e+01   1.4316827e+01
   4.1037713e+00   1.0439767e+01   1.1127842e+01
   7.7596217e+00   1.0709451e+01   1.2926049e+01
   8.9248875e+00   3.3913505e+00   1.0993133e+01
   5.6141337e+00   1.1069549e+01   1.0828132e+01
   7.6630313e+00   8.8727147e+00   1.1592218e+01
   1.7370120e+01   4.8942125e+00   7.4383386e+00
   3.3387968e+00   3.3437878e+00   8.5511168e+00
   7.4308503e+00   1.1108279e+01   1.2475773e+01
   4.7339166e+00   9.3290073e+00   1.4596200e+00
   8.6772779e+00   6.6702643e+00   1.0604073e+00
   8.3917809e+00   1.3068393e+01   1.4298029e+01
   1.3764204e+01   4.3914945e+00   1.0875968e+01
   2.7387893e+01   2.2813018e+01   7.2966179e+00
   2.7686008e+00   1.1723696e+00   6.9679484e+00
   1.3017743e+01   1.0713249e-01   6.3582122e+00
   2.8056005e+00  -8.6522069e-01   6.5073856e+00
   1.5522544e+01   4.4613424e+00   6.5333168e+00
   1.5099207e+01   3.3865437e+00   5.9388767e+00
   3.6397971e-01  -1.5435072e+00   3.4182874e+00
   4.3726492e+00   1.1767835e+01   2.3956237e+01
   7.0925420e+00   1.1116836e+01  -4.2686612e+00
   9.1326252e+00   1.1648505e+01   1.2260724e+01
   8.0351148e+00   1.3030342e+01   1.4576952e+01
   1.2960219e+00   7.5571266e-01   6.2109692e+00
   1.0586871e+01   1.0423063e+01   1.4520048e+01
   2.6205789e-01   6.8672104e-01   5.7936783e+00
   3.8790317e+00   3.3975791e+00   7.9400842e+00
   1.1858805e+00   7.8014148e+00   1.2114013e+00
   1.9455787e+00   8.9991283e-01   6.6323599e+00
   2.0503502e+01   1.0211297e+01   1.2270588e+01
   8.6802552e+00   1.2007241e+01   1.4483954e+01
   4.9940059e+00   1.1082573e+01   9.0290770e+00
   7.1303757e+00   1.1209378e+01   1.2296811e+01
   4.5309489e+00   1.1861531e+01   9.9786669e+00
   5.3106819e+00   1.0666064e+01   1.2035076e+01
   7.7500725e+00   1.3290637e+01   1.3811796e+01
   8.8440262e-01  -5.6078391e-01   6.3322021e+00
   3.3660190e+00   2.6872664e+00   7.5479587e+00
   1.3957505e+00   1.4023880e+00   6.7387649e+00
   3.5776120e+00   1.0778014e+01   1.0372300e+01
  -7.5541496e+00   1.2221807e+01  -8.1150865e+00
   7.6375206e+00   1.0616868e+01   1.2557771e+01
   2.4796534e+00   1.8363068e+00   7.3388790e+00
   2.5305042e+00   9.6599084e+00   9.9582645e+00
   6.5195719e+00   1.1660453e+01   1.2172852e+01
   4.3913203e+00   3.2439373e+00   9.4036650e+00
   4.2566498e+00   1.2176200e+01   1.0350027e+01
   1.7308733e+01   8.3317819e+00   1.1075613e+01
   1.6685052e+01   6.3544588e+00   7.9207167e+00
   7.8909038e+00   1.0692228e+01   1.4833015e+01
   3.9124915e+00   2.8590033e+00   8.9296172e+00
  -6.0059981e+00   1.8715707e+01   1.8899442e+00
   1.8823384e+00   1.0121531e+01   9.6987567e+00
   1.5359460e+01   3.3325849e+00   9.3840156e+00
   2.7578354e+00   3.8042312e+00   9.1358659e+00
   9.1501683e+00   1.1268157e+01   1.4186757e+01
  -3.5041539e+00   9.2122986e+00   2.9937915e+00
   6.7833161e+00   1.0390725e+01   1.2963172e+01
   2.8790984e+00   8.9914103e+00   1.0570969e+01
   1.1137345e+01   1.7173869e+01   1.2045627e+01
   1.5033147e+01   8.5195914e+00   1.0950560e+01
   7.5446243e+00   8.1609916e+00   1.2138104e+01
   1.2338322e+01   3.8863656e+00   3.9586035e+00
   1.4640387e+00   9.4245254e-01   7.2438708e+00
   9.5061716e+00   1.7459050e+01   6.7629777e+00
   7.7130094e+00   9.4492993e+00   1.1999316e+01
   2.3707495e+00   1.0440733e+01   9.3416470e+00
   6.9091410e+00   1.1769205e+01   1.3903616e+01
   5.2379089e+00   1.1473378e+01   8.5198998e+00
   4.3311599e+00   9.5977526e+00   9.1176400e+00
   5.1110063e+00   1.6762229e+01   8.8141451e+00
   7.1228204e+00   1.0441267e+01   1.3060458e+01
   1.1018173e+01   4.9179171e+00   5.7415690e+00
   7.6659494e+00   1.1276828e+01   7.9742098e+00
   1.1677971e+01   7.8883482e+00   9.7732163e+00
   9.7925996e-01   1.0491379e+01  -8.5132711e+00
   3.7803103e+00   1.2132350e+00   6.8503846e+00
   8.0105536e+00   1.1531607e+01   1.4969597e+01
   5.3303201e+00   3.3532134e+00   9.9748635e+00
   1.5198775e+01   2.1247260e+00   8.8785569e+00
   9.8256652e+00   3.2960729e+00   7.5893298e-01
   8.9364067e+00   1.0383919e+01   1.4422711e+01
  -5.6191233e-01   1.0876008e+01  -5.3072960e+00
   9.0940312e+00   1.2317342e+01   3.7717856e+00
   5.3003269e+00   1.1086393e+01   1.3503648e+01
   9.3240543e+00   8.4624920e+00   1.3940999e+01
   1.4514590e+01   3.4675385e+00   4.4992649e+00
   2.8929403e+00   2.1238523e+00   8.3590942e+00
  -3.1701109e+00   9.8414656e+00   3.2015798e+00
   4.2191913e+00   3.8507554e+00   8.6017747e+00
   1.6317257e+01   4.6043325e+00   5.1194281e+00
   3.7719594e+00   5.4571492e+00   9.7065923e+00
   7.5220183e+00   1.1085439e+01   1.3661964e+01
   3.5157442e-01   4.9790713e-02   6.3757367e+00
   2.7406351e+00   1.0722789e+01   1.0533090e+01
  -9.2653255e+00   5.9650464e+00   2.9393179e+00
  -8.6544314e+00   1.3100996e+01  -4.3881634e-01
   5.2758384e+00   1.0489964e+01   1.1821973e+01
  -8.3704938e+00   1.1418074e+01  -1.5945856e+01
   3.3904498e+00   1.1586218e+01   9.1636426e+00
   1.9396311e+00   1.7098544e+00   8.6758015e+00
   3.1602763e+00   8.1345286e+00   1.1002783e+01
   8.1443538e+00   1.2312841e+01   1.4543637e+01
   1.9860192e+00   2.2775020e+00   9.5201483e+00
   1.8224904e+00   1.0919088e+01   5.5077923e+00
   5.5474308e-01  -1.8844934e-01   5.2837778e+00
   3.4161382e+00   9.8148907e+00   8.5325785e+00
   1.7098477e+01   7.7403399e+00   1.1986769e+01
   1.5944855e+01   4.2786865e+00   8.8704746e+00
   4.5777395e+00   8.4225494e+00   8.6028371e+00
   9.8033962e+00   1.3162463e+01   1.4172587e+01
   3.9505207e+00   1.0123346e+01   9.6719678e+00
   3.4240431e+00   1.6333844e+01   8.3195275e+00
   1.2936634e+01   5.3895990e+00   1.0288580e+01
   8.3461758e+00   9.0931802e+00   1.5241477e+01
   5.1102141e+00   7.8969556e+00   1.2198681e+01
   3.1722817e+00   9.2664648e+00   9.8137867e+00
   3.6456646e+00   1.8901856e-01   7.0826412e+00
   1.5440425e+00   2.0270243e+00   9.2703936e-01
   3.2388061e+00   1.9906880e+00   8.6282196e+00
   7.9333837e+00   1.0902611e+01   1.3406606e+01
  -1.9243463e+00   9.4744157e+00  -1.1903869e-01
   1.3122201e+01   3.1125507e+00   8.7064806e+00
   9.0585196e+00   9.6699260e+00   1.3888965e+01
   1.1733031e+01   3.2962069e+00   8.4739769e+00
   2.4007401e+00   2.8110825e+00   7.8392695e+00
   8.2043510e+00   1.0008206e+01   1.5100081e+01
   1.0115425e+01   9.5393647e-01   2.9965507e+00
   3.9871648e+00   1.0330310e+01   1.0397609e+01
   6.0085756e+00   8.0764024e+00  -2.9852396e+00
  -4.8461657e-01   1.1077037e+01  -1.5350370e+00
   1.7691976e+01   5.4495067e+00   4.5549692e+00
   2.6578831e+00   3.1911797e+00   7.8698406e+00
   1.6016684e+01   7.4282380e+00   1.2876300e+01
   4.8955574e+00   1.0063127e+01   1.0018295e+01
   6.9199013e+00   1.1889237e+01   1.3524047e+01
   3.2736924e+00   1.1372404e+00   6.9809470e+00
   1.3759093e+00   1.8720656e+00   8.1601923e+00
   3.3933122e+00   1.1815438e+00   8.0449957e+00
   1.3886448e+00   2.3489813e+00   7.0052968e+00
   2.4970537e+00   6.8027149e-01   5.1457093e+00
   3.1850388e-01   3.3838156e-01   3.7661594e+00
   3.6551497e+00   9.5575386e+00   9.6972838e+00
   2.6107794e+00   2.0856819e+00   6.9606834e+00
   6.1400002e+00   1.1170857e+01   1.3963934e+01
   8.6296154e+00  -2.0222007e-02   2.9260930e+00
  -1.3888023e+00   1.1358437e+01   6.5107999e+00
   1.0457678e+01   3.3356019e+00   7.2293091e+00
   5.7940564e+00   1.1155069e+01   9.4985317e+00
   3.5597228e+00   2.4539850e+00   8.0033342e+00
   2.8082585e+00   8.2397620e-01   7.3483634e+00
   7.4932985e+00   9.7582460e+00   1.3938082e+01
   3.2855416e+00   9.4274248e+00   9.3743819e+00
   6.2866979e+00   1.2374235e+01   2.1982355e-01
   3.7473589e+00   9.6518346e+00   1.1207775e+01
   6.7843383e+00   1.0220183e+01   1.3369554e+01
   4.4638412e+00   1.0779967e+01   6.8030133e+00
   4.4781387e+00   9.9756551e+00   7.8946173e+00
   3.7344645e+00   9.8471853e+00   8.9785098e+00
   7.8020084e+00   9.1790564e+00   1.1485021e+01
   7.0957540e+00   8.1563297e+00  -1.7939239e+00
   1.4006040e+01   5.0457016e+00   1.2026218e+01
   6.8652179e+00   9.3707318e+00   1.3466903e+01
   8.4837414e+00   1.5404717e+01   1.0752312e+01
   1.6479795e+00   1.6338464e+00   7.7950604e+00
  -5.4060772e+00   7.2638882e+00   7.9999832e-01
   1.3273093e+01   3.9541101e+00   5.8053773e+00
   7.2584842e+00   9.1379161e+00   1.2884313e+01
   4.4321430e+00   1.0168269e+01   1.0855698e+01
   3.9790572e+00   1.0344003e+01   8.9509186e+00
   1.6087514e+01   3.3179876e+00   1.0040623e+01
   7.6369955e+00   8.5160028e+00   1.2247116e+01
   6.6002949e+00   1.1194099e+01   1.2773455e+01
   2.5060313e+00   1.4465781e+00   8.1313487e+00
   7.0366801e-01   2.7148543e-01   5.0524470e+00
   8.4937245e+00   1.1489164e+01   1.5319018e+01
   1.3239337e+01  -4.5724073e-01   9.3134435e+00
   2.9743499e+00   2.0499247e+00   8.2152820e+00
   1.6116301e+00   2.0737317e+00   8.7767586e+00
   4.5055985e+00   5.1752042e+00   1.0422075e+01
  -1.9126063e+00   1.3767939e+01   4.8278778e+00
   9.0565564e+00   1.1095565e+01   1.4914223e+01
   6.4423631e+00   1.0864161e+01   1.2809407e+01
   1.7280831e+01   7.8239054e+00   1.4007239e+01
   1.7935608e+00   9.9965642e-01   6.7229611e+00
   1.2208623e+01   9.3201880e+00   1.0357841e+01
  -4.6867158e-01   5.8299750e+00  -6.5755715e+00
   6.2167802e+00   7.8192959e+00  -8.1480150e+00
   4.1674797e+00   1.0962741e+01   1.1990158e+01
   8.5796948e+00   1.0710564e+01   1.3121248e+01
   4.6598382e+00   9.1676677e+00   6.6601586e+00
   2.8868670e+00   1.3134164e+01  -2.5011886e+00
   1.4790718e+01   1.0577055e+01   1.2512735e+01
   2.0778715e+00   2.8949325e-01   7.7563827e+00
   4.0663659e+00   2.4207793e+00   8.1638136e+00
   3.0259836e+00   1.0645475e+01   1.0941704e+01
   1.8016127e+01   7.6778495e+00   8.2177647e+00
   3.0703051e+00   9.1779944e+00   9.6607723e+00
  -4.7355130e-01   1.2001459e+01  -3.8549160e+00
  -7.6529859e+00   8.2214284e+00   2.8484256e+00
   1.8703306e+01   6.8248186e+00   1.1779008e+01
   3.7690794e+00   1.0671752e+01   1.0329212e+01
   4.0153793e+00   1.0637876e+01   9.3565498e+00
   4.4393239e+00   1.1090970e+01   1.1211710e+01
   9.0606001e+00   1.1650082e+01   1.5102233e+01
   8.3955274e+00   1.0531400e+01   1.1831088e+01
   9.8061506e+00   2.2022649e+00   4.4878348e+00
   4.3842073e+00   4.3114647e+00   1.1206772e+01
   2.5087073e-01   1.9615062e+00   7.3581560e+00
   1.0449949e+01   3.1615051e+00   4.2880535e+00
   1.2078092e+01   2.6081416e+00   1.0573009e+01
   6.8788548e+00   9.5995092e+00   1.3477453e+01
  -5.9251689e+00   5.5430404e+00  -9.8758815e+00
   1.0909990e+01   1.1005384e+01   1.0892216e+01
   3.5231019e+00   1.1120388e+01   1.0191067e+01
   8.5295814e+00   7.1589677e+00   9.5233817e+00
   3.6348646e+00   3.5187068e+00   9.9884108e+00
   7.8675324e+00   1.0093411e+01  -3.4692754e+00
   5.0887233e+00   1.0304714e+01   1.0124688e+01
   9.6730146e+00   1.1297407e+01   1.3710807e+01
   4.7344322e+00   1.0420245e+00   8.0477141e+00
   2.3298982e+00  -3.1191933e-01   5.0120147e+00
   5.2648804e+00   1.1158232e+01   1.2188482e+01
   1.3258075e+01   2.3237405e+00   8.8464707e+00
   2.9046407e+00   3.1607595e+00   8.5941903e+00
   1.8420618e+01   4.5115774e+00   8.1069545e+00
   8.6824843e+00   3.4171464e+00   4.2727800e+00
   1.2623884e+01   8.8184312e+00   7.9791729e+00
   1.2851509e+01   4.6548859e+00   8.0303918e+00
   8.4213866e+00   1.1658160e+01   1.2868733e+01
   8.7762598e+00   2.6961546e+00   7.5335776e+00
  -1.5612792e+00   1.2750099e+01  -1.0149369e+00
   3.0316585e+00   2.7618042e-01   6.0737296e+00
   1.5217219e+01   5.0184594e+00   8.7488083e+00
   4.6692332e+00   3.4814671e+00   7.9804330e+00
  -9.1888402e+00   1.3101071e+01  -1.4223054e+01
  -6.5039969e+00   8.1583070e+00  -1.0029858e+01
   1.2314596e+01   2.9386531e+00   1.1008432e+01
   5.0878702e+00   9.7420675e+00   1.0811345e+01
   1.9511509e+00   2.9453466e+00   8.3374932e+00
   9.1183423e+00   1.0495239e+01   1.3891839e+01
   4.6820381e+00   1.6011945e+01  -4.0866371e+00
   9.0254725e-01  -8.9940739e-01   6.3471721e+00
   1.1522823e+00   7.8886059e-01   4.8858198e+00
   4.5701030e+00   8.6980718e+00   1.1229097e+01
   4.0646076e+00   9.4133126e+00   9.4335383e+00
   9.2099197e+00   1.2523567e+01   1.4394978e+01
   1.5152319e+01   9.4115380e+00   1.2783284e+01
   3.1313676e+00   8.4415638e+00   8.1941643e+00
   5.9915222e-01   1.8492422e+01   8.8484080e+00
   1.5666590e+01   1.1922750e+01   1.2069967e+01
  -4.2147480e-01   1.1394724e+01  -6.4164738e+00
   1.4509156e+01   1.5084021e+01  -2.4897436e+00
   5.8937064e+00   8.3567803e+00   1.0843657e+01
   1.0099639e+01   9.9509445e+00   6.5362278e+00
   7.3798387e+00   7.9789179e+00  -1.2685461e+00
   8.5497310e+00   9.6847454e+00   1.3204821e+01
   1.6369565e+01   8.4647143e+00   1.3209030e+01
   5.1063463e+00   1.9829969e+01   3.3004854e+00
   8.4890221e+00   1.2481850e+01   1.4271484e+01
   4.8812631e+00   1.1128196e+01   1.0711532e+01
   1.6501045e+01   7.4152013e+00   8.8097747e+00
   4.7710985e+00   1.0752442e+01   1.0611343e+01
   3.2508166e+00   9.8600709e+00   1.1147021e+01
   4.3206987e+00   1.0527518e+01   1.0256057e+01
   3.0168898e+00   8.9582445e+00   9.4481755e+00
   1.5507859e+01   6.0024676e+00   1.3167711e+01
   7.4558363e+00   9.3834501e+00   1.2513441e+01
   4.9356982e+00   1.0924985e+01   1.0926490e+01
   1.6208804e+01   5.8540238e+00   1.3976228e+01
   5.1486169e+00   1.3097183e+01   1.0010746e+01
   1.6776352e+01   6.6014897e+00   1.2583378e+01
   1.8626293e+01   6.8787482e+00   7.3555518e+00
   7.1122122e+00   1.0332890e+01   1.3781814e+01
   3.6461631e+00   1.0493170e+01   7.2427258e+00
   3.0172356e+00   9.0226064e+00   1.0140286e+01
   3.9668346e+00   1.0733442e+01   1.0465881e+01
   1.6117382e+01   9.7348318e+00   1.1557491e+01
   9.9734965e+00   1.0980816e+01   1.4217927e+01
  -1.0581798e+00   2.2871848e+00  -5.0289752e-01
   4.5157514e+00   6.8222516e+00   7.1175998e-02
   4.4145574e+00   1.0546775e+01   5.4918343e-01
   2.4754097e+00   2.1541414e+00   6.9575958e+00
   4.2006672e+00   1.0397666e+01   9.9226268e+00
   1.8569318e+00   8.6387821e+00   1.0113553e+01
   6.3927088e+00   1.3536429e+01   9.0141846e+00
   1.1882090e+01   2.3183537e+00   3.9890645e+00
   1.4965595e+01   7.3872404e+00   8.9449212e+00
   2.8373356e+00   3.8088018e-01   5.9103683e+00
   4.2215755e+00   1.0576975e+01   8.7860712e+00
   3.2285296e+00   2.5217462e+00   7.7822796e+00
   1.3868273e+01   1.8078920e+00   8.4783198e+00
   4.8436384e+00   1.3290011e+01   7.7777364e+00
   6.8710718e-01   1.2665746e+01   6.1708392e+00
  -6.5758020e+00   1.7436103e+00  -1.0006392e+00
   8.0082108e+00   9.3456467e+00   1.2506661e+01
   9.2216471e+00   1.1968817e+01   1.3043166e+01
  -8.0585213e+00   1.0002040e+01  -2.7707424e+00
   2.6059180e+00   6.0664478e+00  -5.9728096e-01
   9.7644578e+00   3.3315668e+00   4.0347175e+00
   8.2335529e+00   1.0212344e+01   1.2332134e+01
   5.3706464e+00   1.2278064e+01   1.0805088e+01
   3.0194416e+00   2.1925854e+00   8.1152046e+00
   7.3202470e+00   1.0499768e+01   1.1948910e+01
   3.6912367e+00   1.9039008e+00   6.0781467e+00
   6.7434945e+00   1.4496397e+01   1.1789490e+01
   4.6326340e+00   1.0236980e+01   1.0401649e+01
   2.7643408e+00   1.7421854e+00   9.4912045e+00
   2.9523536e+00   2.6166362e+00   7.5180592e+00
   5.7528729e+00   1.6774733e+01   3.2596871e+00
   4.8866106e+00   1.1342969e+01   1.0907981e+01
   7.6858786e+00   1.0408217e+01   1.2223507e+01
   1.6143484e+01   8.9934052e+00   9.3351539e+00
   7.7245456e+00   1.7519896e+01   7.7841741e+00
   3.5646093e+00   9.0436537e+00   9.4471689e+00
   3.2330220e+00   9.0456803e+00   1.0293581e+01
   8.2836554e+00   1.0059832e+01   1.2886135e+01
   5.9608475e+00   9.4240430e+00   1.0833392e+01
   4.2132605e+00   1.0004447e+01   1.0683727e+01
   7.2512652e+00   1.1807406e+01   1.2115983e+01
   5.0350379e+00   1.1290293e+01   1.0388740e+01
   5.2036296e+00   1.2079458e+01   1.0604347e+01
   1.1173845e+01   2.8690197e+00   8.8907865e+00
   1.4363716e+01   6.4133405e+00   7.4927521e+00
   9.2168812e-01  -9.3786900e-01   5.3947829e+00
   7.0387405e+00   1.1230794e+01   1.2455603e+01
   1.2100314e+01   4.9296815e+00   8.9960946e+00
   1.3950209e+00  -2.1422511e+00   3.8688062e+00
   1.5192869e+01   1.5728089e+01   1.1511050e+01
  -6.3844319e+00   1.4397338e+01   1.7469103e+00
   4.1457415e+00   1.0264682e+01   9.9588738e+00
   7.7544749e+00   1.0687468e+01   1.5108541e+01
   4.6823007e+00   9.0653523e+00   9.8830407e+00
   5.3408236e+00   9.6413273e+00   1.1157522e+01
   5.2144996e+00   5.7824977e+00   5.9919299e+00
   6.3311990e+00   9.2979826e+00   1.3886621e+01
   1.7160072e+01   1.0112723e+01   1.4024210e+01
   6.9951489e+00   1.1214607e+01   1.5032047e+01
   9.9929840e+00   9.6436303e+00   1.5051238e+01
   4.7668869e+00   1.7231250e+01   7.1451112e+00
   6.4217015e+00   1.0180518e+01   1.3342116e+01
   1.3001197e+01   6.6906330e+00   1.2383294e+01
  -3.6073634e+00   9.9546230e+00  -5.9823808e-01
   3.7468603e+00   1.0599142e+01   1.0670824e+01
   3.7652780e+00   1.0800763e+01   9.2029061e+00
   1.1189973e+01   5.6048122e+00   1.0772229e+01
   2.3102698e+00   1.0831411e+01  -7.0254771e-01
   3.1982992e+00   2.3318214e+00   8.1124395e+00
   8.3602936e+00   1.1071140e+01   1.5023661e+01
   1.0406879e+01   2.7394729e+00   1.0424892e+01
   1.0755090e+01   3.5955164e+00   5.5731574e+00
   1.0423268e+01   1.2306838e+01   1.3528752e+01
   1.8228018e+00  -2.3622607e-01   5.8981302e+00
   7.9603395e+00   9.9257956e+00   1.2661369e+01
   3.5008650e+00   2.4335486e+00   8.2896972e+00
   2.7001333e+00   3.1313671e+00   8.1967191e+00
   5.2196311e-01   7.5504478e+00   9.5039960e+00
   1.3581376e+01   4.3029419e+00   9.0112966e+00
   1.6815188e+01   4.6329113e+00   7.5062052e+00
   1.5243746e+00   7.4719071e+00  -5.6011228e+00
   1.9761831e+00   2.1584212e+00   6.4119929e+00
   9.5620283e+00   1.2708771e+01   1.5211593e+01
   3.7195288e+00   2.5738540e+00   8.5160036e+00
  -7.0783466e+00   1.4748994e+01  -2.5993502e+00
   2.1111748e+00   5.3615062e-01   5.9254250e+00
   4.9870516e+00   9.9511755e+00   9.2361595e+00
   1.0151966e+01   4.9038020e+00   7.4614705e-01
   1.7056912e+00   2.1594747e+00   7.8275977e+00
   3.9242059e-01   1.9693989e+01   3.2492028e+00
   1.2245723e+01   6.9416235e+00   6.3155658e+00
   3.7108909e+00   1.2025412e+01   9.9074337e+00
   2.4522468e+00   2.0505599e+00   7.3096367e+00
  -5.6993900e+00   2.4090077e+00  -2.5656876e+01
   1.8861128e+01   8.0726572e+00   1.2151379e+01
   1.3509319e+00   7.8920844e+00   3.0513651e+00
   9.5856686e+00   7.1332419e+00   3.4880360e+00
   3.8743478e+00   9.2604514e+00   1.0047491e+01
   9.0845325e+00   1.8971590e+01   1.8752534e+01
   4.1902462e+00   8.9247387e+00   1.0359044e+01
   1.6586326e+00   6.6444208e-01   5.8047314e+00
   5.6368763e+00   1.1872809e+01   1.0560336e+01
  -1.3957413e-01   6.9673129e+00   8.8477717e+00
   5.1292307e+00   6.4275524e+00   1.9684625e+00
   3.9038426e+00   4.2504350e+00   9.9495671e+00
   1.6378225e+01   4.0992219e+00   1.2500673e+01
   1.0904344e+00   1.3877234e+01   3.4768375e+00
   6.6667461e+00   1.0359465e+01   1.2137860e+01
   3.1967965e+00   9.1301905e+00   1.0297430e+01
   5.0021747e+00   9.7844203e+00   1.1045165e+01
   1.3948722e+01   2.0386979e+00   4.8173512e+00
   3.9874364e+00   2.7752215e+00   7.4026803e+00
   7.4509216e+00   1.1384902e+01   1.3018168e+01
  -4.9034204e+00   5.5246690e+00   1.6705960e+00
   1.0392497e+01   1.5195195e+01   9.8959424e+00
   8.0482914e+00   1.7747050e+01   1.8357521e+01
   2.4512632e+00   4.6130967e+00  -3.4794584e+00
   3.3655087e+00   1.1214776e+01   8.9239702e+00
   5.6231011e+00   9.3076952e+00   1.1926419e+01
   3.6738228e+00   2.1409076e+00   9.2549891e+00
   9.9241719e-01   1.6156810e+00   8.8385609e+00
   9.0138341e+00   1.1814584e+01   1.6369516e+01
   7.1718631e+00   1.0464837e+01   1.2188521e+01
   1.6848187e+01   7.3861747e+00   8.3883263e+00
   9.2604945e+00   1.8220746e+01   1.1508314e+01
   8.2688748e+00   1.1386000e+01   1.3940812e+01
   7.7560689e-01   6.5270875e-01   5.7931287e+00
   2.0016584e+00   1.9969915e+00   6.0729198e+00
   1.4742977e+00   2.4466755e+00  -1.5609832e+01
   7.0077502e+00   1.0966315e+01   1.3574948e+01
   3.4388369e+00   3.3169238e+00   8.6508597e+00
   8.0931336e+00   1.1518852e+01   1.2702169e+01
   5.2814429e+00   8.9542677e+00   1.2403965e+01
   3.0067868e+00   2.7711858e+00   7.4749699e+00
   4.9227088e+00   1.1804604e+01   1.0382469e+01
   2.7444975e+00   9.9683920e+00   1.0413819e+01
   4.2123385e+00   1.5634172e+00   7.0605154e+00
  -9.3728900e+00   2.1560022e+00  -8.3919803e+00
   9.4275141e+00   1.0359691e+01   1.3426017e+01
   9.0225233e+00   2.4964675e+01   1.4454863e+01
   7.0247182e+00   9.1527539e+00   1.2756730e+01
   1.1906027e+01   6.5192137e+00   1.1456172e+01
   1.1460840e+01   1.0359126e+01  -8.7694416e-01
   4.6998511e+00   1.0182779e+01   1.0407052e+01
   6.5368094e+00   1.4876074e+01  -3.3390426e+00
   2.1663733e+00   3.3881918e+00   8.3201643e+00
   6.4015680e+00   1.2067502e+01   1.0612690e+01
   5.8060218e+00   1.0346147e+01   1.2580906e+01
   1.1390245e+01   3.0662637e-01   4.9360646e+00
   1.3216069e+01   2.7971533e+00   8.6962068e+00
   4.5203988e+00   1.0155792e+01   1.0589515e+01
   5.4609809e+00   9.9482014e+00   8.9845977e+00
   1.3492450e+01   1.1320785e+01   9.8486500e+00
   1.9250276e+00   1.0047440e+01   1.0332247e+01
   1.2794589e+01   1.3242715e+00   5.3797706e+00
   1.9482577e+00   1.3751755e+01   4.8179462e+00
   1.7864431e+00   9.8380533e+00   9.6650019e+00
   7.3909679e+00   1.1118911e+01   1.3666589e+01
   1.4444588e+00   4.1758558e-02   7.3720655e+00
   2.8072261e+00   9.2108870e+00   8.6344080e+00
   8.6163318e+00  -8.2009852e-01   4.1405940e+00
   1.6536895e+00   3.4289669e+00   9.2703153e+00
   1.0670279e+01   8.8356805e-01   1.0628679e+01
   1.5225847e+01   5.6214697e+00   1.1933326e+01
   3.1226997e+00   7.7627485e+00   7.3624445e+00
   2.8415297e+00   1.4911046e+01   2.0814179e+00
   8.5819302e+00   1.3038061e+01   1.4668116e+01
   1.4669174e+01   5.4273057e+00   8.6281443e+00
   9.2301287e+00   1.0619684e+01   1.5085664e+01
   6.3529758e+00   8.7714267e+00   1.1778231e+01
   4.0592794e+00   1.0909263e+01   5.1794245e+00
   1.3679713e+00   1.5423849e+00   6.8351425e+00
   9.0954825e+00   2.7407405e+00   6.4136242e+00
   3.8638302e+00   1.0001688e+01   1.0660825e+01
   1.6588241e+00   3.8774754e-01   4.8149951e+00
   1.5363008e+01   3.7393645e+00   6.5104700e+00
   3.8682896e+00   1.1113385e+01   6.8029115e+00
   5.5692017e+00   1.0330631e+01   9.9852553e+00
   9.6072079e+00   1.1387521e+01   1.5355569e+01
   1.5860697e+01   5.0271082e+00   5.9446661e+00
   7.0316348e+00   1.0069248e+01   1.5928595e+00
   3.4019050e+00   9.1405532e+00   9.0403745e+00
   8.0575717e+00   1.0243091e+01   1.3819354e+01
   1.0195179e+01   1.6908842e+01   1.5456182e+01
   6.3420764e+00   1.0351868e+01   1.3906566e+01
   9.5681685e+00   2.9038701e+00   3.6514887e+00
   1.2904062e+01   2.6761013e+00   9.8095927e+00
   2.4388818e+00   1.8676405e+00   6.0888962e+00
   7.3942257e+00   1.1285708e+01   1.3866861e+01
   6.6070097e+00   8.1677423e+00   1.1487676e+01
   2.4696068e+00   1.0342981e+01   1.0694108e+01
   5.1827321e+00   7.5378756e+00   1.2879670e+01
   1.6016382e+01   5.1741757e+00   5.5910881e+00
   1.3573293e+01   1.0961531e+01   7.9460067e+00
   1.2617168e+00   3.3493294e+00   8.5392162e+00
   2.8309920e+00   5.4583416e-01   6.7058178e+00
   8.0373740e+00   9.4911140e+00   1.3464689e+01
   2.7345801e+00   8.4002577e+00   9.3276609e+00
   2.9319766e+00   4.8807564e+00  -3.7342953e+00
   6.7204506e+00   9.6106958e+00   1.4022974e+01
   5.1104730e+00   1.0338902e+01   9.1741404e+00
   7.7757412e+00   1.0930436e+01   1.3984507e+01
   1.1749760e+01   9.5746925e-01   7.2580513e+00
   4.4806215e+00   2.6640919e+00   8.8910553e+00
   7.5279636e+00   1.0852875e+01   1.3258244e+01
   7.9280862e+00   1.1916059e+01   1.3651753e+01
   4.0984798e+00   1.1391881e+01   1.0967424e+01
   1.4386945e+01   2.9130750e+00   9.5706684e+00
   2.8438923e+00   7.3184351e-01   7.2020032e+00
   4.0682694e+00   1.3407796e+01   3.4513184e+00
   4.0087764e+00   4.4256060e+00   9.5253081e+00
   5.2744463e+00   4.8824732e+00   2.7422752e+00
   5.9573616e+00   1.0995717e+01   1.1835758e+01
   1.1713391e+01   2.8884418e+00   8.9701956e+00
   4.7278404e+00   1.0348983e+01   1.0188664e+01
   3.9212893e+00   4.4094878e+00   9.2072365e+00
   4.2260826e+00   1.1644272e+01   1.0368564e+01
   2.3159906e+00  -1.7178082e+00   5.5996049e+00
   1.9641795e+00   1.4294523e+00   5.7840203e+00
   4.9557140e+00   9.9842295e+00   9.3357871e+00
   1.4840105e+00   1.4294492e+01   5.6872272e+00
   1.4041727e+01   2.5904169e+00   9.1071137e+00
   7.4411367e+00   1.3937920e+01   2.6758343e+00
   3.4352267e+00   1.1031863e+01   1.0633753e+01
   1.2582969e+00  -1.1800606e-01   5.3308150e+00
   1.3188865e+01   2.5501993e+00   4.7558065e+00
   1.5052047e+01   5.0387864e+00   4.8149267e+00
   4.7073061e+00   1.0167257e+01   8.6270337e+00
   9.0433244e+00   1.1804116e+01   1.4504378e+01
   2.0890669e+01   6.4266920e+00   1.4070076e+01
   8.3958762e+00   1.0737319e+01   1.5818147e+01
   5.5677828e+00   9.9657469e+00   1.2875198e+01
   1.4980132e+01   8.4841994e+00   1.0811971e+01
  -1.9585591e+00   7.9205397e+00  -1.6955984e+00
   5.7830167e+00   1.6346049e+01   1.0798810e+01
   7.4683811e+00   1.8653451e+01   1.3847305e+01
   2.9343790e+00   7.5073296e+00   1.1145924e+01
   2.3372828e+00  -3.0502653e-01   5.7078919e+00
   6.1628051e+00   1.1801269e+01   1.1548113e+01
   4.7317855e+00   9.0078087e+00   6.8166679e+00
  -3.6880209e+00   7.3500939e+00  -4.0858282e+00
   4.2562798e+00   1.1731272e+01   5.5482381e+00
   3.2974332e+00   9.7511902e+00   9.1723902e+00
   2.5789069e+00  -1.0181668e+00   4.1331748e+00
   2.7429131e-01  -2.1069966e-01   5.3865075e+00
   2.7804225e+00   2.0694337e+00   8.5121608e+00
   3.7629466e+00   3.5094915e+00   8.8962498e+00
   7.4584845e+00   1.0974746e+01   1.3610139e+01
   5.8697626e+00   8.7546060e+00   1.1584397e+01
   1.3819717e+01   3.6375858e+00   6.0172322e+00
   1.9089950e+00   9.6373433e+00   7.0064824e+00
   3.7570788e+00   1.3604824e+01  -1.4303261e+00
   3.3995462e+00   1.5289328e+01   1.9529912e+00
   9.0070416e+00   1.1302106e+01   1.4352368e+01
   4.9767175e+00   1.1256299e+01   1.1166264e+01
   1.7204631e+01   5.1912625e+00   6.4760995e+00
   6.1750937e+00   1.2083545e+01   9.1509464e+00
   4.6050688e+00   1.0204140e+01   1.1678706e+01
   1.3408982e+01   3.2614608e+00   6.6454011e+00
   8.0717397e+00   3.7287220e+00   5.0695758e+00
   9.0908126e+00   9.8489179e+00   1.4444363e+01
   1.1742846e+00   6.1901189e-01   5.0858693e+00
   4.3445994e+00   9.0018656e+00   7.7651878e+00
   8.9660218e+00   1.2329242e+01   1.5262218e+01
   1.8482215e+01   1.1232202e+01   1.1692348e+01
   5.3826986e+00   7.7781076e+00   1.0698751e+01
   4.8424100e+00   1.1348002e+01   9.3978826e+00
   7.4577049e+00   5.0365514e+00   6.5521355e+00
   6.2404869e+00   9.2956624e+00   1.3401091e+01
   6.5627431e+00   9.6618774e+00   1.2226745e+01
   1.8443632e+00   6.7631623e+00  -6.3580632e+00
   6.7194500e+00   1.2175836e+01   1.1022719e+01
  -1.3172121e+00   1.2903729e+01   9.5341382e+00
   4.6393098e+00   1.0665558e+01   1.0351475e+01
   1.5622983e+01   3.1725109e+00   9.7499683e+00
   1.3291845e+01   5.6578985e+00   7.2756790e+00
   2.9913908e+00   1.6174969e+00   6.0235936e+00
   3.0580378e+00   1.1437850e+01   1.2583071e+01
   9.5837597e+00   2.5226946e+00   7.2596638e+00
   9.8754161e+00   1.1027500e+01   1.3301757e+01
   1.0891635e+01   6.3385682e+00   6.7083236e+00
   1.1689578e+01   5.1957502e+00   5.4916512e+00
  -2.5037750e+00   1.1410412e+01  -1.7589051e+00
  -9.3168003e-01   6.8549025e+00  -6.1331553e+00
   1.8309534e+00   7.8826213e-01   7.7575260e+00
   7.1242487e+00   1.2395634e+01   1.4785597e+01
   6.2558087e+00   9.3563402e+00   1.3361455e+01
   1.1277140e+01   1.4576321e+01   1.1144372e+01
   1.7705397e+00   2.1230715e+00   7.6120090e+00
   1.5947719e+01   4.1759750e+00   6.8109622e+00
   7.9668613e+00   8.7088026e+00   1.2061898e+01
   5.0823801e+00   1.1239698e+01   1.0384166e+01
   1.2330769e+01   2.8755358e+00   7.1425483e+00
   8.3168487e+00   1.0738692e+01   1.5030532e+01
   1.2563692e+01   6.2492271e+00   9.1135491e+00
   1.1075716e+00   1.5441158e-01   7.2120401e+00
   7.6629442e+00   1.0320667e+01   1.3549305e+01
   8.5869310e+00   1.0323668e+01   1.3563067e+01
   1.1335878e+00   1.6290416e+01   7.0914557e+00
   7.2732314e+00   9.9051208e+00   1.5206885e+01
   3.1082654e+00   1.0419665e+01   1.1210555e+01
   3.4351072e+00   3.2989842e+00   9.8072325e+00
   5.4554496e+00   7.7698545e+00   1.1130939e+01
  -2.0864245e+00   1.3275856e+01  -2.2879249e+00
   3.5398089e+00   9.8830147e+00   1.1009579e+01
   1.4773834e+01   6.1286031e+00   6.6483307e+00
   2.0337541e+00   7.1799131e-01   5.6686833e+00
   3.6757592e+00   9.2524513e+00   1.1189376e+01
   4.1762539e+00   9.8378461e+00   1.1545228e+01
   6.8467348e+00   1.0962085e+01   1.2484042e+01
   1.6066543e+01   1.2185288e+01   5.4418337e+00
   5.7103879e+00   1.1724679e+01   1.1372579e+01
   1.3402687e+00   4.5642728e-01   5.9059130e+00
   2.4554958e+00   1.4718016e+00   8.4334570e+00
   5.2442713e+00   9.8398348e+00   1.2074167e+01
   1.4315132e+01   4.1115828e+00   7.1408734e+00
   2.0084185e+00   3.0036467e+00   8.4389451e+00
   1.1281080e+01  -5.6065279e-01   9.4492208e+00
   2.2690676e+00   3.8992036e-01   7.3889141e+00
   3.5166842e+00  -2.6955404e-01   7.2781154e+00
   1.5945839e+01   5.1657996e+00   3.9532300e+00
   5.7469192e+00   4.8764265e+00   9.1276391e+00
   6.0903940e+00  -1.8536874e-01  -1.8054392e+00
   5.7388336e+00   1.2127365e+01   1.2202470e+01
   3.8273262e+00   8.7952796e+00   4.7519597e+00
   2.3793630e+00   1.0184787e+01  -3.2456913e+00
   1.0217997e+01   3.4732130e+00   7.7324316e+00
   8.6400465e+00   1.4943075e+01   1.3188115e+01
   1.3210202e+01   7.7449807e+00   5.0030904e+00
   1.4685199e+00   1.8764232e+00   5.8533135e+00
   1.5948845e+01   5.1573983e+00   1.1038719e+01
   1.0750947e+01   1.0291986e+01   1.4166879e+01
   7.3898718e+00   1.0118535e+01   1.2357476e+01
   8.6126531e+00   1.1889777e+01   1.4574827e+01
   7.0669931e+00   1.1156293e+01   1.1100330e+01
   7.7880747e+00   1.0444529e+01   1.4227026e+01
   1.5590895e+00  -1.2816717e+00   5.5789751e+00
   1.9076069e+01   9.2598346e+00   1.4795616e+01
   1.8708256e+01   9.6005922e+00   1.1575885e+01
   9.8949645e+00   6.5054503e-01   5.9383601e+00
   2.1920408e+00   3.0436911e+00   7.2879607e+00
   1.1065949e+01   5.0354781e+00   8.5445612e+00
   2.9543582e+00   8.9138682e+00   6.3467401e+00
   1.4800483e+00   1.8425446e+00   6.9784936e+00
   2.1225600e+00   2.4453896e+00   7.5516914e+00
   6.1027592e+00   4.2524295e+00   1.1257345e+01
   9.2379433e+00   1.1070773e+01   1.2083221e+01
   3.4968878e+00   9.9574720e+00   1.1745401e+01
   8.7258150e+00   9.5929587e+00   1.3344768e+01
   7.6197499e+00   1.0428474e+01   1.2270086e+01
   1.6328493e-01   1.2726594e+01   9.8150718e+00
   7.5671692e+00   1.3190681e+01   1.6342575e+01
   6.4337691e+00   1.2078936e+01   9.5601605e+00
   8.8467458e+00   1.1678668e+01   1.4501768e+01
   7.4525752e+00   1.3515340e+01   1.3022140e+01
   9.6174403e-01   1.6574781e+01  -3.2913856e+00
  -8.8865227e-01   1.0536492e+01   5.5398333e+00
   1.2898956e+00   9.3943620e+00  -1.3094935e+01
   6.9877100e+00   1.2281246e+01   1.1358174e+01
   3.5808973e+00   7.8043747e+00   7.3515173e+00
   1.5123466e+00   7.1851417e+00   7.3120044e+00
   5.8268849e+00   1.3247629e+01   9.9025683e+00
   2.3858396e+00   5.3193657e+00  -5.3901270e+00
   5.3458623e+00   1.0893813e+01   1.1383459e+01
   3.5794020e+00   1.0396431e+01   9.7754472e+00
   6.4366841e+00   1.1631143e+01   1.2883955e+01
   1.2999523e+01   3.0825244e+00   1.1263320e+01
   5.9065519e+00   1.1122107e+01   1.0218796e+01
   1.4167638e+01   1.8640218e+00   5.1771248e+00
   1.3527876e+01   5.0690462e+00   9.9301223e+00
   1.3050941e+01   4.1846188e+00   1.0961884e+01
   8.6533262e+00   1.1941945e+01   1.5446822e+01
   7.5673881e+00   1.2113810e+01   1.0815235e+01
   5.6328958e+00   1.1680181e+01   1.0611724e+01
   8.4434498e+00   1.4071406e+01  -7.8101384e+00
   2.2369693e+00   2.1619179e+00   7.2875527e+00
   1.4695064e+01   4.8565982e+00   1.0367886e+01
   1.7111474e+01   5.1730136e+00   1.3658348e+01
   2.0876032e+00  -1.2072117e-01   5.8420546e+00
   8.2162279e+00   9.7016000e+00   1.3923113e+01
   1.2374996e+00   7.8882718e+00   1.1119875e+01
   8.2634316e+00   3.4707867e+00   9.9416072e+00
   1.3931782e+01   6.2794233e+00   7.1011957e+00
   1.8369277e+01   1.0098489e+01   1.0766743e+01
   5.9857672e+00   1.6092113e+01   5.8985830e+00
   2.3621704e+00  -4.7476295e-01   6.1895134e+00
   4.1736755e-02   1.2388054e+01   5.8839202e+00
   7.6937129e+00   9.8162095e+00   1.3568920e+01
   4.3845344e+00   1.4518917e+01   4.6947129e+00
   3.0807875e+00   1.0278593e+01   1.0890841e+01
   7.9439870e-01  -3.7680120e-01   6.9968295e+00
   8.6532408e+00   1.2039010e+01   1.4396397e+01
   1.6667707e+01   8.5425650e+00   1.7043118e+01
   4.2981597e+00   1.0747187e+01   8.6422707e+00
   4.3692251e+00   9.6024355e+00   9.7144270e+00
   2.3178725e+00   1.8308232e+00   5.2017410e+00
   4.8622583e+00   9.6006861e+00   1.1797983e+01
   1.9214813e+01   4.0063850e+00   8.9009507e+00
   6.3203202e+00   1.2881349e+01   1.1601161e+01
   3.4930639e+00   1.0349338e+01   1.0182575e+01
   4.3170217e+00   2.2312979e+00   8.6555706e+00
   1.3771785e+01   1.2453401e+01   1.3846687e+01
  -2.3538274e+00   1.4885953e+01   1.4229189e+01
   9.2661684e+00   1.1209062e+01   1.2958876e+01
   6.3200656e+00   1.1589928e+01   1.1427938e+01
   2.2826333e-01  -1.9306267e+00   5.3612544e+00
   6.1421617e+00   1.2591447e+01   1.1035097e+01
   7.4477376e+00   8.4006311e+00   1.2390853e+01
   3.9803740e+00   3.1022268e+00   8.9715462e+00
   1.3497085e+00   1.4554709e+00   6.5504114e+00
   1.1988817e+00   6.9455137e+00  -3.7521201e-01
   6.8382655e+00   1.0057737e+01   1.1228141e+01
   1.3210661e+01   3.4119976e+00   7.9523793e+00
   1.4388315e+01   1.2165645e+01   1.3807684e+01
   9.7969681e+00   1.1118693e+01   1.4082728e+01
   2.7988226e+00   9.0930834e+00   9.2680127e+00
   9.9126037e+00   1.1844264e+01   1.5110015e+01
   3.6859621e+00   1.1686334e+01   9.7812260e+00
   3.7888244e+00   1.0324862e+01   9.3674525e+00
   1.3327449e+01   7.3359438e+00   1.1072915e+01
   3.1079342e+00   7.7916645e+00   1.0386733e+01
   2.1423000e+00   1.8138242e+00   6.0935799e+00
   4.3944999e+00   1.0020820e+01   7.4716540e+00
   4.5066489e+00   1.1511979e+01   1.0297555e+01
   1.2901150e+01   4.7958891e+00   9.2507691e+00
